ply
format ascii 1.0
element vertex 48
property float x
property float y
property float z
property uchar diffuse_red
property uchar diffuse_green
property uchar diffuse_blue
end_header
0.00252853 0.000191054 0.0359989 0 255 0
0.030174 -0.80857 0.553053 0 255 0
-0.00947162 -0.000335279 0.0476674 0 255 0
-0.0342291 0.000400508 0.0440555 0 255 0
-0.021878 0.000608023 0.0409338 255 0 255
0.00433652 0.000430004 0.100243 0 255 0
-0.00926511 0.000169983 0.0938979 0 255 0
0.0162861 -0.819767 0.545002 0 255 0
0.00221211 -0.834564 0.525791 255 0 255
0.0188863 -0.838343 0.524894 0 255 0
0.0353971 -0.832816 0.528331 0 255 0
-0.0224112 -1.39116e-005 0.0894139 255 0 255
0.0516766 -0.837203 0.526186 0 255 0
0.0438643 -0.808732 0.553144 255 0 255
0.017636 0.000239138 0.0944327 0 255 0
0.0149715 -0.000293144 0.0364253 255 0 255
0.0690729 -0.841054 0.523516 255 0 255
0.0585798 -0.815885 0.548495 255 0 255
0.0738363 -0.836314 0.535862 255 0 255
0.0882778 -0.841937 0.533916 255 0 255
0.0867243 -0.850853 0.517384 255 0 255
0.0280656 -0.000528946 0.0524838 255 0 255
0.030217 0.000660071 0.0802292 255 0 255
0.0401116 -0.000193644 0.0378732 255 0 255
0.0441365 0.000691469 0.084221 255 0 255
0.051327 0.00014472 0.0248489 255 0 255
0.0566974 0.000212539 0.0906408 255 0 255
0.0647848 0.000476033 0.0284732 255 0 255
0.0700694 0.00163166 0.0853619 255 0 255
0.103366 -0.847887 0.518212 0 255 0
0.0770423 0.00119508 0.0266793 255 0 255
0.102496 -0.833695 0.538442 255 0 255
0.117108 -0.814056 0.552873 0 255 0
0.120562 -0.843376 0.520677 0 255 0
0.137316 -0.840162 0.523161 0 255 0
0.13103 -0.832156 0.54065 0 255 0
0.0834452 0.00344909 0.0970397 0 255 0
0.089628 0.000937496 0.0259797 255 0 255
0.102529 0.00474011 0.00816992 0 255 0
0.0997259 0.00197264 0.0950311 0 255 0
0.115606 -0.00035841 0.0340079 255 0 255
0.111303 0.00317757 0.0907934 255 0 255
0.124815 0.00410781 0.0872952 0 255 0
0.154589 -0.844673 0.520697 255 0 255
0.171998 -0.853371 0.515427 255 0 255
0.145367 -0.850378 0.530339 0 255 0
0.159511 -0.844439 0.533939 255 0 255
0.173669 -0.8443 0.534518 255 0 255
